# .PCD v0.7 - Point Cloud Data file format
VERSION 0.7
FIELDS x y z rgb
SIZE 4 4 4 4
TYPE F F F F
COUNT 1 1 1 1
WIDTH 1086
HEIGHT 1
VIEWPOINT 0 0 0 1 0 0 0
POINTS 1086
DATA ascii
-213.31992 167.42168 559.9281 1.8443132e-38
-214.18225 167.42168 559.9281 1.8811915e-38
-206.0844 160.44577 536.59778 2.1944019e-38
-206.91081 160.44577 536.59778 1.6873286e-38
-216.76927 167.42168 559.9281 1.0692939e-38
-222.46786 171.14217 572.37097 1.0139765e-38
-223.34937 171.14217 572.37097 1.0508547e-38
-219.35629 167.42168 559.9281 1.3735394e-38
-215.53313 163.85951 548.01477 1.530596e-38
-216.37712 163.85951 548.01477 1.5490351e-38
-364.62115 275.0499 919.8819 1.6598867e-38
-427.04416 320.89154 1073.1956 1.7613018e-38
-428.69699 320.89154 1073.1956 1.807436e-38
-286.89987 213.9277 715.46368 2.0563616e-38
-252.87958 187.83896 628.21204 2.1670665e-38
-247.8031 183.36659 613.25458 2.2316024e-38
-237.44086 175.03175 585.37939 2.2316024e-38
-238.34239 175.03175 585.37939 2.2316024e-38
-701.78223 513.42645 1717.1129 2.2590813e-38
-704.4267 513.42645 1717.1129 2.1300094e-38
-707.07123 513.42645 1717.1129 2.2590096e-38
-462.85809 334.84335 1119.8562 2.1483765e-38
-395.75568 285.23694 953.9516 2.1484482e-38
-397.22485 285.23694 953.9516 2.1576677e-38
-468.03214 334.84335 1119.8562 2.1668871e-38
-720.29376 513.42645 1717.1129 2.1761065e-38
-722.93829 513.42645 1717.1129 2.1853259e-38
-725.58276 513.42645 1717.1129 2.1945454e-38
-728.22729 513.42645 1717.1129 2.2129125e-38
-730.87183 513.42645 1717.1129 2.2221319e-38
-523.94025 366.73318 1226.5092 2.2313872e-38
-525.82916 366.73318 1226.5092 2.2313872e-38
-503.7309 350.06351 1170.7588 2.2405349e-38
-483.55423 334.84335 1119.8562 2.2589737e-38
-429.28519 296.20758 990.64203 2.2590096e-38
-430.81088 296.20758 990.64203 2.268229e-38
-535.2738 366.73318 1226.5092 2.2865602e-38
-564.02087 385.06985 1287.8347 2.2865602e-38
-539.0517 366.73318 1226.5092 2.2865961e-38
-516.35242 350.06351 1170.7588 2.2865961e-38
-495.62698 334.84335 1119.8562 2.2865961e-38
-476.62869 320.89154 1073.1956 2.2865961e-38
-478.28149 320.89154 1073.1956 2.286632e-38
-1439.803 962.67462 3219.5867 2.286632e-38
-1444.7614 962.67462 3219.5867 2.286632e-38
-1449.7198 962.67462 3219.5867 2.286632e-38
-447.59332 296.20758 990.64203 2.286632e-38
-291.92734 192.53493 643.91736 2.286632e-38
-781.11743 513.42645 1717.1129 2.286632e-38
-783.76196 513.42645 1717.1129 2.286632e-38
-786.40643 513.42645 1717.1129 2.286632e-38
-789.05096 513.42645 1717.1129 2.286632e-38
-791.6955 513.42645 1717.1129 2.2958155e-38
-794.33997 513.42645 1717.1129 2.2958155e-38
-796.9845 513.42645 1717.1129 2.2958155e-38
-799.62903 513.42645 1717.1129 2.2958155e-38
784.43115 510.78198 1717.1129 2.3416974e-38
781.78662 510.78198 1717.1129 2.3416974e-38
779.14215 510.78198 1717.1129 2.3416974e-38
776.49762 510.78198 1717.1129 2.3416974e-38
773.85309 510.78198 1717.1129 2.3416974e-38
771.20862 510.78198 1717.1129 2.3416974e-38
768.56409 510.78198 1717.1129 2.3416974e-38
765.91962 510.78198 1717.1129 2.3416974e-38
763.27509 510.78198 1717.1129 2.3416974e-38
760.63055 510.78198 1717.1129 2.3416974e-38
757.98608 510.78198 1717.1129 2.3416974e-38
755.34155 510.78198 1717.1129 2.3416974e-38
752.69708 510.78198 1717.1129 2.3416974e-38
750.05255 510.78198 1717.1129 2.3416974e-38
747.40802 510.78198 1717.1129 2.3416974e-38
507.7933 348.26044 1170.7588 2.3416974e-38
505.99023 348.26044 1170.7588 2.3416974e-38
739.47449 510.78198 1717.1129 2.3416974e-38
736.83002 510.78198 1717.1129 2.3416974e-38
734.18549 510.78198 1717.1129 2.3416974e-38
731.54102 510.78198 1717.1129 2.3416974e-38
728.89648 510.78198 1717.1129 2.3416974e-38
726.25195 510.78198 1717.1129 2.3416974e-38
723.60748 510.78198 1717.1129 2.3416974e-38
720.96295 510.78198 1717.1129 2.3416974e-38
718.31848 510.78198 1717.1129 2.3416974e-38
715.67395 510.78198 1717.1129 2.3416974e-38
713.02942 510.78198 1717.1129 2.3416974e-38
710.38495 510.78198 1717.1129 2.3416974e-38
707.74042 510.78198 1717.1129 2.3416974e-38
705.09589 510.78198 1717.1129 2.3416974e-38
702.45142 510.78198 1717.1129 2.3416974e-38
699.80688 510.78198 1717.1129 2.3416974e-38
1307.1794 957.71619 3219.5867 2.3416974e-38
1302.2211 957.71619 3219.5867 2.3416974e-38
1297.2626 957.71619 3219.5867 2.3416974e-38
1292.3041 957.71619 3219.5867 2.3416974e-38
1287.3457 957.71619 3219.5867 2.3416974e-38
1282.3872 957.71619 3219.5867 2.3416974e-38
1277.4288 957.71619 3219.5867 2.3416974e-38
1272.4703 957.71619 3219.5867 2.3416974e-38
1267.5118 957.71619 3219.5867 2.3416974e-38
1262.5535 957.71619 3219.5867 2.3416974e-38
1257.595 957.71619 3219.5867 2.3416974e-38
1252.6365 957.71619 3219.5867 2.3416974e-38
1247.6781 957.71619 3219.5867 2.3416974e-38
1242.7196 957.71619 3219.5867 2.3416974e-38
1237.7611 957.71619 3219.5867 2.3416974e-38
1232.8027 957.71619 3219.5867 2.3416974e-38
1227.8442 957.71619 3219.5867 2.3416974e-38
1222.8857 957.71619 3219.5867 2.3416974e-38
1217.9274 957.71619 3219.5867 2.3416974e-38
1212.9689 957.71619 3219.5867 2.3416974e-38
1208.0105 957.71619 3219.5867 2.3416974e-38
1203.052 957.71619 3219.5867 2.3416974e-38
1198.0935 957.71619 3219.5867 2.3416974e-38
1193.1351 957.71619 3219.5867 2.3416974e-38
1188.1766 957.71619 3219.5867 2.3416974e-38
1183.2181 957.71619 3219.5867 2.3416974e-38
1178.2598 957.71619 3219.5867 2.3416974e-38
1173.3013 957.71619 3219.5867 2.3416974e-38
1168.3428 957.71619 3219.5867 2.3416974e-38
1163.3844 957.71619 3219.5867 2.3416974e-38
1158.4259 957.71619 3219.5867 2.3416974e-38
36.187214 30.045998 101.00664 2.3416974e-38
36.031654 30.045998 101.00664 2.3416974e-38
36.740582 30.769999 103.44054 2.3416974e-38
36.581272 30.769999 103.44054 2.3416974e-38
35.56498 30.045998 101.00664 2.3416974e-38
35.40942 30.045998 101.00664 2.3416974e-38
35.25386 30.045998 101.00664 2.3416974e-38
35.098301 30.045998 101.00664 2.3416974e-38
34.942741 30.045998 101.00664 2.3416974e-38
36.059883 31.145243 104.702 2.3416974e-38
36.045158 31.272366 105.12936 2.3416974e-38
35.025482 30.524818 102.61631 2.3416974e-38
34.320503 30.045998 101.00664 2.3416974e-38
34.164944 30.045998 101.00664 2.3416974e-38
1084.0492 957.71619 3219.5867 2.3416974e-38
35.092381 31.145243 104.702 2.3416974e-38
33.698265 30.045998 101.00664 2.3416974e-38
33.542706 30.045998 101.00664 2.3416974e-38
33.387146 30.045998 101.00664 2.3416974e-38
33.23159 30.045998 101.00664 2.3416974e-38
33.076031 30.045998 101.00664 2.3416974e-38
34.264164 31.272366 105.12936 2.3416974e-38
34.102253 31.272366 105.12936 2.3416974e-38
33.129021 30.524818 102.61631 2.3416974e-38
32.453793 30.045998 101.00664 2.3416974e-38
32.298233 30.045998 101.00664 2.3416974e-38
32.142673 30.045998 101.00664 2.3416974e-38
31.987114 30.045998 101.00664 2.3416974e-38
31.831554 30.045998 101.00664 2.3416974e-38
31.675995 30.045998 101.00664 2.3416974e-38
31.520437 30.045998 101.00664 2.3416974e-38
31.364878 30.045998 101.00664 2.3416974e-38
31.209318 30.045998 101.00664 2.3416974e-38
31.053759 30.045998 101.00664 2.3416974e-38
30.898199 30.045998 101.00664 2.3416974e-38
30.74264 30.045998 101.00664 2.3416974e-38
30.58708 30.045998 101.00664 2.3416974e-38
30.431522 30.045998 101.00664 2.3416974e-38
30.275963 30.045998 101.00664 2.3416974e-38
30.120403 30.045998 101.00664 2.3416974e-38
29.964844 30.045998 101.00664 2.3416974e-38
29.809284 30.045998 101.00664 2.3416974e-38
29.653725 30.045998 101.00664 2.3416974e-38
29.498165 30.045998 101.00664 2.3416974e-38
29.342606 30.045998 101.00664 2.3416974e-38
29.187048 30.045998 101.00664 2.3416974e-38
29.031488 30.045998 101.00664 2.3416974e-38
28.875929 30.045998 101.00664 2.3416974e-38
28.720369 30.045998 101.00664 2.3416974e-38
28.56481 30.045998 101.00664 2.3416974e-38
28.40925 30.045998 101.00664 2.3416974e-38
28.253691 30.045998 101.00664 2.3416974e-38
28.098133 30.045998 101.00664 2.3416974e-38
27.942574 30.045998 101.00664 2.3416974e-38
27.787014 30.045998 101.00664 2.3416974e-38
27.631454 30.045998 101.00664 2.3416974e-38
875.79413 957.71619 3219.5867 2.3416974e-38
870.83569 957.71619 3219.5867 2.3416974e-38
865.87726 957.71619 3219.5867 2.3416974e-38
860.91882 957.71619 3219.5867 2.3416974e-38
27.723412 31.019148 104.27811 2.3416974e-38
26.698099 30.045998 101.00664 2.3416974e-38
26.54254 30.045998 101.00664 2.3416974e-38
26.38698 30.045998 101.00664 2.3416974e-38
26.231421 30.045998 101.00664 2.3416974e-38
26.075861 30.045998 101.00664 2.3416974e-38
25.920301 30.045998 101.00664 2.3416974e-38
25.764744 30.045998 101.00664 2.3416974e-38
25.609184 30.045998 101.00664 2.3416974e-38
25.453625 30.045998 101.00664 2.3416974e-38
25.298065 30.045998 101.00664 2.3416974e-38
25.142506 30.045998 101.00664 2.3416974e-38
24.986946 30.045998 101.00664 2.3416974e-38
24.831387 30.045998 101.00664 2.3416974e-38
24.675829 30.045998 101.00664 2.3416974e-38
24.520269 30.045998 101.00664 2.3416974e-38
24.36471 30.045998 101.00664 2.3416974e-38
24.20915 30.045998 101.00664 2.3416974e-38
24.053591 30.045998 101.00664 2.3416974e-38
23.898031 30.045998 101.00664 2.3416974e-38
23.742472 30.045998 101.00664 2.3416974e-38
23.586914 30.045998 101.00664 2.3416974e-38
23.431355 30.045998 101.00664 2.3416974e-38
23.275795 30.045998 101.00664 2.3416974e-38
23.120235 30.045998 101.00664 2.3416974e-38
22.964676 30.045998 101.00664 2.3416974e-38
22.809116 30.045998 101.00664 2.3416974e-38
22.653557 30.045998 101.00664 2.3416974e-38
22.497997 30.045998 101.00664 2.3416974e-38
22.34244 30.045998 101.00664 2.3416974e-38
22.18688 30.045998 101.00664 2.3416974e-38
22.031321 30.045998 101.00664 2.3416974e-38
21.875761 30.045998 101.00664 2.3416974e-38
21.720201 30.045998 101.00664 2.3416974e-38
21.564642 30.045998 101.00664 2.3416974e-38
21.409082 30.045998 101.00664 2.3416974e-38
21.253525 30.045998 101.00664 2.3416974e-38
21.097965 30.045998 101.00664 2.3416974e-38
20.942406 30.045998 101.00664 2.3416974e-38
20.786846 30.045998 101.00664 2.3416974e-38
20.631287 30.045998 101.00664 2.3416974e-38
20.475727 30.045998 101.00664 2.3416974e-38
20.320168 30.045998 101.00664 2.3416974e-38
20.16461 30.045998 101.00664 2.3416974e-38
20.00905 30.045998 101.00664 2.3416974e-38
19.853491 30.045998 101.00664 2.3416974e-38
19.697931 30.045998 101.00664 2.3416974e-38
19.542372 30.045998 101.00664 2.3416974e-38
19.386812 30.045998 101.00664 2.3416974e-38
19.231253 30.045998 101.00664 2.3416974e-38
19.075693 30.045998 101.00664 2.3416974e-38
18.920135 30.045998 101.00664 2.3416974e-38
20.536339 32.882961 110.54375 2.3416974e-38
593.16241 957.71619 3219.5867 2.3416974e-38
20.195843 32.882961 110.54375 2.3416974e-38
19.855165 32.603104 109.60295 2.3416974e-38
19.356888 32.057446 107.76859 2.3416974e-38
19.271549 32.192142 108.2214 2.3416974e-38
19.104877 32.192142 108.2214 2.3416974e-38
18.78039 31.923874 107.31956 2.3416974e-38
18.461264 31.66004 106.43262 2.3416974e-38
17.926956 31.019148 104.27811 2.3416974e-38
17.766359 31.019148 104.27811 2.3416974e-38
17.053423 30.045998 101.00664 2.3416974e-38
16.897863 30.045998 101.00664 2.3416974e-38
16.742306 30.045998 101.00664 2.3416974e-38
16.586746 30.045998 101.00664 2.3416974e-38
16.431187 30.045998 101.00664 2.3416974e-38
16.275627 30.045998 101.00664 2.3233662e-38
16.120068 30.045998 101.00664 2.3233662e-38
15.964508 30.045998 101.00664 2.3233662e-38
15.808949 30.045998 101.00664 2.3233662e-38
15.65339 30.045998 101.00664 2.3141826e-38
15.49783 30.045998 101.00664 2.3141826e-38
15.342272 30.045998 101.00664 2.3141826e-38
15.186712 30.045998 101.00664 2.3141826e-38
15.031153 30.045998 101.00664 2.3141826e-38
14.875593 30.045998 101.00664 2.3141826e-38
14.720035 30.045998 101.00664 2.2958514e-38
14.564475 30.045998 101.00664 2.2958514e-38
14.408916 30.045998 101.00664 2.2958514e-38
14.253356 30.045998 101.00664 2.2958514e-38
14.322463 30.524818 102.61631 2.2866678e-38
14.813627 31.923874 107.31956 2.2866678e-38
16.126619 35.14555 118.14997 2.2683366e-38
14.422969 31.791409 106.87424 2.2683366e-38
14.025583 31.272366 105.12936 2.2683366e-38
13.751418 31.019148 104.27811 2.2683366e-38
13.814537 31.529751 105.99462 2.2591531e-38
13.707706 31.66004 106.43262 2.2591531e-38
13.599989 31.791409 106.87424 2.2591531e-38
13.66215 32.327972 108.67803 2.2591531e-38
13.326092 31.923874 107.31956 2.2591531e-38
13.16081 31.923874 107.31956 2.2591531e-38
12.995528 31.923874 107.31956 2.240786e-38
384.90741 957.71619 3219.5867 2.240786e-38
379.94894 957.71619 3219.5867 2.240786e-38
12.499683 31.923874 107.31956 2.240786e-38
12.283221 31.791409 106.87424 2.2132353e-38
12.588745 33.024696 111.02023 2.2132353e-38
360.11514 957.71619 3219.5867 2.2132353e-38
12.246782 33.024696 111.02023 2.2132353e-38
11.38856 31.145243 104.702 2.2040518e-38
11.136767 30.894072 103.85764 2.2040518e-38
11.24897 31.66004 106.43262 2.2040518e-38
11.562859 33.024696 111.02023 2.2040518e-38
11.391877 33.024696 111.02023 2.1856847e-38
11.220896 33.024696 111.02023 2.1856847e-38
11.09775 33.16766 111.50084 2.1856847e-38
10.832243 32.882961 110.54375 2.1856847e-38
10.661996 32.882961 110.54375 2.1856847e-38
10.491749 32.882961 110.54375 2.1856847e-38
10.104663 32.192142 108.2214 2.1765011e-38
9.8142824 31.791409 106.87424 2.1765011e-38
9.6496868 31.791409 106.87424 2.1765011e-38
9.2173662 30.894072 103.85764 2.1765011e-38
8.8087816 30.045998 101.00664 2.1765011e-38
8.6532221 30.045998 101.00664 2.1765011e-38
8.702426 30.769999 103.44054 2.1765011e-38
8.5431185 30.769999 103.44054 2.1765011e-38
8.383811 30.769999 103.44054 2.158134e-38
8.2576666 30.894072 103.85764 2.158134e-38
8.1305008 31.019148 104.27811 2.158134e-38
7.9377661 30.894072 103.85764 2.158134e-38
7.8093052 31.019148 104.27811 2.1489505e-38
7.7111459 31.272366 105.12936 2.1489505e-38
7.5492373 31.272366 105.12936 2.1489505e-38
7.297966 30.894072 103.85764 2.1489505e-38
6.94207 30.045998 101.00664 2.158134e-38
6.7865109 30.045998 101.00664 2.158134e-38
6.6309519 30.045998 101.00664 2.158134e-38
6.6049004 30.646917 103.02677 2.158134e-38
6.3198333 30.045998 101.00664 2.158134e-38
6.1642737 30.045998 101.00664 2.158134e-38
6.1288886 30.646917 103.02677 2.1489505e-38
5.9702182 30.646917 103.02677 2.1489505e-38
5.8115478 30.646917 103.02677 2.1489505e-38
5.6984653 30.894072 103.85764 2.1489505e-38
5.5609384 31.019148 104.27811 2.1489505e-38
5.3785648 30.894072 103.85764 2.1489505e-38
5.1768661 30.646917 103.02677 2.1489505e-38
5.0181956 30.646917 103.02677 2.1489505e-38
4.9385419 31.145243 104.702 2.1489505e-38
4.8362703 31.529751 105.99462 2.1489505e-38
4.6730289 31.529751 105.99462 2.1489505e-38
4.4547906 31.145243 104.702 2.1489505e-38
4.224843 30.646917 103.02677 2.1489505e-38
4.049973 30.524818 102.61631 2.1489505e-38
3.8308847 30.045998 101.00664 2.158134e-38
3.6753254 30.045998 101.00664 2.158134e-38
3.5197661 30.045998 101.00664 2.158134e-38
3.3642068 30.045998 101.00664 2.158134e-38
3.2086475 30.045998 101.00664 2.158134e-38
19.9625 196.45461 660.42804 2.158134e-38
18.945381 196.45461 660.42804 2.158134e-38
17.928263 196.45461 660.42804 2.158134e-38
16.911144 196.45461 660.42804 2.158134e-38
15.894027 196.45461 660.42804 2.158134e-38
72.524925 957.71619 3219.5867 2.158134e-38
67.566475 957.71619 3219.5867 2.158134e-38
62.608025 957.71619 3219.5867 2.158134e-38
11.825553 196.45461 660.42804 2.158134e-38
10.808434 196.45461 660.42804 2.1489505e-38
9.791316 196.45461 660.42804 2.158134e-38
8.7741976 196.45461 660.42804 2.158134e-38
7.7570796 196.45461 660.42804 2.158134e-38
6.7399611 196.45461 660.42804 2.158134e-38
5.7228427 196.45461 660.42804 2.158134e-38
4.7057242 196.45461 660.42804 2.1489505e-38
3.688606 196.45461 660.42804 2.1489505e-38
2.6714878 196.45461 660.42804 2.1489505e-38
1.6543694 196.45461 660.42804 2.1397669e-38
0.63725096 196.45461 660.42804 2.1397669e-38
-0.37986737 196.45461 660.42804 2.1397669e-38
-1.3969858 196.45461 660.42804 2.1397669e-38
-2.4141042 196.45461 660.42804 2.1489505e-38
-3.4312224 196.45461 660.42804 2.1489505e-38
-4.4483409 196.45461 660.42804 2.1489505e-38
-5.4654593 196.45461 660.42804 2.158134e-38
-6.4825778 196.45461 660.42804 2.158134e-38
-7.4996958 196.45461 660.42804 2.158134e-38
-8.5168142 196.45461 660.42804 2.158134e-38
-9.5339327 196.45461 660.42804 2.158134e-38
-10.551051 196.45461 660.42804 2.158134e-38
-11.56817 196.45461 660.42804 2.158134e-38
-12.585288 196.45461 660.42804 2.158134e-38
-13.602407 196.45461 660.42804 2.158134e-38
-14.619525 196.45461 660.42804 2.158134e-38
-16.048134 201.62447 677.80774 2.1489505e-38
-17.553965 207.07378 696.12683 2.1489505e-38
-20.269539 225.34499 757.5498 2.1489505e-38
-22.775997 239.42905 804.89667 2.1489505e-38
-24.01561 239.42905 804.89667 2.158134e-38
-23.769623 225.34499 757.5498 2.158134e-38
-24.22385 218.90656 735.90552 2.158134e-38
-24.652843 212.82582 715.46368 2.158134e-38
-25.058649 207.07378 696.12683 2.158134e-38
-26.130747 207.07378 696.12683 2.158134e-38
-27.202845 207.07378 696.12683 2.158134e-38
-29.060356 212.82582 715.46368 2.158134e-38
-30.162235 212.82582 715.46368 2.1765011e-38
-30.419138 207.07378 696.12683 2.1765011e-38
-31.491236 207.07378 696.12683 2.1765011e-38
-32.563332 207.07378 696.12683 2.1765011e-38
-32.750286 201.62447 677.80774 2.1856847e-38
-33.794174 201.62447 677.80774 2.1856847e-38
-34.838058 201.62447 677.80774 2.1765011e-38
-35.881943 201.62447 677.80774 2.1765011e-38
-37.92382 207.07378 696.12683 2.1765011e-38
-37.969711 201.62447 677.80774 2.1765011e-38
-40.068016 207.07378 696.12683 2.2040518e-38
-41.140114 207.07378 696.12683 2.2040518e-38
-42.212212 207.07378 696.12683 2.286632e-38
-43.284309 207.07378 696.12683 2.286632e-38
-44.356407 207.07378 696.12683 1.2442109e-38
-45.428505 207.07378 696.12683 4.7898722e-39
-46.500603 207.07378 696.12683 1.2620723e-38
-47.572701 207.07378 696.12683 1.2528528e-38
-48.644798 207.07378 696.12683 1.271218e-38
-49.716896 207.07378 696.12683 1.2527789e-38
-50.788994 207.07378 696.12683 1.234519e-38
-51.861092 207.07378 696.12683 6.0758872e-39
-52.933189 207.07378 696.12683 1.3459472e-38
-54.005287 207.07378 696.12683 2.3509516e-38
-53.627979 201.62447 677.80774 1.6418393e-38
-54.671864 201.62447 677.80774 1.6234002e-38
-55.715752 201.62447 677.80774 1.595888e-38
-56.759636 201.62447 677.80774 1.595888e-38
-56.321377 196.45461 660.42804 1.5959596e-38
-57.338497 196.45461 660.42804 1.6051791e-38
-59.891289 201.62447 677.80774 1.6143987e-38
-60.935173 201.62447 677.80774 1.6143987e-38
-61.979057 201.62447 677.80774 1.6052514e-38
-63.022942 201.62447 677.80774 1.6236906e-38
-65.798363 207.07378 696.12683 1.6237261e-38
-66.870461 207.07378 696.12683 1.6421653e-38
-66.154594 201.62447 677.80774 1.6697161e-38
-67.198479 201.62447 677.80774 1.6697161e-38
-68.242363 201.62447 677.80774 1.6789356e-38
-67.509682 196.45461 660.42804 1.6881552e-38
-68.526794 196.45461 660.42804 1.6973748e-38
-69.543915 196.45461 660.42804 1.6973748e-38
-72.417908 201.62447 677.80774 1.7065946e-38
-73.461792 201.62447 677.80774 1.7158142e-38
-74.505676 201.62447 677.80774 1.7250337e-38
-75.549561 201.62447 677.80774 1.7342533e-38
-76.593445 201.62447 677.80774 1.7526208e-38
-77.637329 201.62447 677.80774 1.7526208e-38
-78.681213 201.62447 677.80774 1.7801716e-38
-79.725098 201.62447 677.80774 1.7893912e-38
-80.768982 201.62447 677.80774 1.7893912e-38
-81.812866 201.62447 677.80774 1.7986107e-38
-82.85675 201.62447 677.80774 1.8078303e-38
-83.900635 201.62447 677.80774 1.8170498e-38
-84.944519 201.62447 677.80774 1.8262694e-38
-85.988403 201.62447 677.80774 1.835489e-38
-84.80069 196.45461 660.42804 1.8354534e-38
-85.81781 196.45461 660.42804 1.8446729e-38
-86.83493 196.45461 660.42804 1.8538925e-38
-90.16394 201.62447 677.80774 1.8631121e-38
-91.207825 201.62447 677.80774 1.8447808e-38
-92.251709 201.62447 677.80774 1.8540004e-38
-90.903404 196.45461 660.42804 1.8540723e-38
-94.339485 201.62447 677.80774 1.8540723e-38
-95.383369 201.62447 677.80774 1.8632919e-38
-99.033394 207.07378 696.12683 1.8725113e-38
-100.10549 207.07378 696.12683 1.8816948e-38
-98.515022 201.62447 677.80774 1.8816948e-38
-99.558907 201.62447 677.80774 1.8909501e-38
-98.023232 196.45461 660.42804 1.9001695e-38
-99.040352 196.45461 660.42804 1.909389e-38
-100.05746 196.45461 660.42804 1.9186084e-38
-101.07458 196.45461 660.42804 1.9278278e-38
-102.09171 196.45461 660.42804 1.9370472e-38
-103.10883 196.45461 660.42804 1.946159e-38
-104.12594 196.45461 660.42804 1.9553785e-38
-105.14306 196.45461 660.42804 1.9645979e-38
-106.16018 196.45461 660.42804 1.9645979e-38
-107.1773 196.45461 660.42804 1.9646696e-38
-108.19441 196.45461 660.42804 1.9646696e-38
-109.21153 196.45461 660.42804 1.9738891e-38
-110.22865 196.45461 660.42804 1.9831085e-38
-111.24577 196.45461 660.42804 1.9739608e-38
-112.26289 196.45461 660.42804 1.9831802e-38
-116.26106 201.62447 677.80774 2.0107309e-38
-117.30495 201.62447 677.80774 2.0199503e-38
-118.34883 201.62447 677.80774 2.0383174e-38
-116.33136 196.45461 660.42804 2.0383174e-38
-120.4366 201.62447 677.80774 2.0566845e-38
-124.76374 207.07378 696.12683 2.0659039e-38
-125.83584 207.07378 696.12683 2.0750157e-38
-130.43315 212.82582 715.46368 2.0842351e-38
-131.53503 212.82582 715.46368 2.0842351e-38
-132.63692 212.82582 715.46368 2.0934546e-38
-133.73878 212.82582 715.46368 2.0935263e-38
-134.84067 212.82582 715.46368 2.1027457e-38
-135.94255 212.82582 715.46368 2.1119652e-38
-137.04442 212.82582 715.46368 2.1119652e-38
-138.1463 212.82582 715.46368 2.1211846e-38
-143.2267 218.90656 735.90552 2.1211846e-38
-153.10916 232.17363 780.50586 2.1303681e-38
-164.26677 247.15257 830.86108 2.148807e-38
-165.54637 247.15257 830.86108 2.1671741e-38
-166.82597 247.15257 830.86108 2.1856129e-38
-168.10556 247.15257 830.86108 2.1856129e-38
-159.1194 232.17363 780.50586 2.1856129e-38
-146.96133 212.82582 715.46368 2.1856488e-38
-144.06149 207.07378 696.12683 2.2040518e-38
-141.31429 201.62447 677.80774 2.1948682e-38
-142.35817 201.62447 677.80774 2.1948682e-38
-143.40205 201.62447 677.80774 2.2040518e-38
-140.7422 196.45461 660.42804 2.2040518e-38
-141.75932 196.45461 660.42804 2.2040518e-38
-142.77644 196.45461 660.42804 2.2040518e-38
-143.79356 196.45461 660.42804 2.2040518e-38
-148.62149 201.62447 677.80774 2.2040518e-38
-149.66537 201.62447 677.80774 2.1856847e-38
-150.70926 201.62447 677.80774 2.1856847e-38
-147.86203 196.45461 660.42804 2.1856847e-38
-148.87915 196.45461 660.42804 2.1856847e-38
-149.89627 196.45461 660.42804 2.2132353e-38
-150.91339 196.45461 660.42804 2.2132353e-38
-151.93051 196.45461 660.42804 2.1856847e-38
-152.94762 196.45461 660.42804 2.1856847e-38
-153.96474 196.45461 660.42804 1.9546243e-38
-154.98186 196.45461 660.42804 4.6174746e-40
-152.099 191.54324 643.91736 3.9608472e-39
-153.0907 191.54324 643.91736 6.1735423e-39
-154.08238 191.54324 643.91736 7.7379589e-39
-155.07408 191.54324 643.91736 7.5535676e-39
-156.06577 191.54324 643.91736 4.5157824e-39
-157.05745 191.54324 643.91736 7.7426294e-39
-158.04915 191.54324 643.91736 1.2169463e-38
-163.1188 196.45461 660.42804 9.5879854e-39
-164.13593 196.45461 660.42804 9.7712976e-39
-161.02422 191.54324 643.91736 9.679102e-39
-162.01591 191.54324 643.91736 9.7712976e-39
-155.24533 182.42213 613.25458 9.7712976e-39
-152.55748 178.17976 598.99286 9.8631261e-39
-149.99181 174.13022 585.37939 9.7709305e-39
-150.89334 174.13022 585.37939 9.9535239e-39
-151.79488 174.13022 585.37939 9.7691326e-39
-152.69641 174.13022 585.37939 9.9528036e-39
-150.18466 170.26065 572.37097 9.860608e-39
-151.06616 170.26065 572.37097 1.004428e-38
-151.94766 170.26065 572.37097 1.0136476e-38
-152.82916 170.26065 572.37097 1.0320144e-38
-153.71066 170.26065 572.37097 1.0227949e-38
-154.59218 170.26065 572.37097 1.0410539e-38
-152.09381 166.55934 559.9281 1.0410539e-38
-156.35518 170.26065 572.37097 1.0410173e-38
-157.23668 170.26065 572.37097 1.0502369e-38
-158.11818 170.26065 572.37097 1.0593842e-38
-158.99968 170.26065 572.37097 1.0593842e-38
-159.88118 170.26065 572.37097 1.0593839e-38
-164.41638 174.13022 585.37939 1.0501643e-38
-173.1902 182.42213 613.25458 1.050128e-38
-174.13467 182.42213 613.25458 1.050128e-38
-179.34937 186.87146 628.21204 1.0684948e-38
-180.31686 186.87146 628.21204 1.022397e-38
-181.28436 186.87146 628.21204 9.9491785e-39
-177.91254 182.42213 613.25458 9.9491785e-39
-183.21938 186.87146 628.21204 9.8584248e-39
-188.79155 191.54324 643.91736 9.9506204e-39
-189.78323 191.54324 643.91736 9.9499043e-39
-190.77493 191.54324 643.91736 9.9499043e-39
-191.76662 191.54324 643.91736 1.0683501e-38
-192.75832 191.54324 643.91736 1.0130327e-38
-193.75 191.54324 643.91736 1.2154293e-38
-199.73506 196.45461 660.42804 1.4551379e-38
-200.75218 196.45461 660.42804 1.4178981e-38
-201.7693 196.45461 660.42804 1.4363372e-38
-208.12291 201.62447 677.80774 1.2613103e-38
-209.16679 201.62447 677.80774 7.8189315e-39
-215.89204 207.07378 696.12683 1.7233369e-38
-211.25456 201.62447 677.80774 2.3507714e-38
-212.29845 201.62447 677.80774 2.0286313e-38
-207.87201 196.45461 660.42804 1.973314e-38
-203.6669 191.54324 643.91736 1.909102e-38
-194.91295 182.42213 613.25458 1.9183214e-38
-195.85742 182.42213 613.25458 1.9366526e-38
-196.80188 182.42213 613.25458 1.9458721e-38
-193.1476 178.17976 598.99286 1.9458721e-38
-194.0701 178.17976 598.99286 1.9550915e-38
-194.9926 178.17976 598.99286 1.9550915e-38
-191.46249 174.13022 585.37939 1.9550915e-38
-192.36403 174.13022 585.37939 1.9643109e-38
-193.26556 174.13022 585.37939 1.9735303e-38
-194.1671 174.13022 585.37939 1.9734944e-38
-186.58739 166.55934 559.9281 1.9734944e-38
-187.44974 166.55934 559.9281 1.982678e-38
-196.8717 174.13022 585.37939 1.9918974e-38
-197.77324 174.13022 585.37939 1.9918974e-38
-194.25978 170.26065 572.37097 1.9918974e-38
-195.1413 170.26065 572.37097 1.9919333e-38
-196.0228 170.26065 572.37097 2.0011527e-38
-196.9043 170.26065 572.37097 1.9181062e-38
-197.7858 170.26065 572.37097 1.8627889e-38
-198.6673 170.26065 572.37097 1.8627168e-38
-199.5488 170.26065 572.37097 1.8442776e-38
-200.4303 170.26065 572.37097 1.8166906e-38
-196.93547 166.55934 559.9281 1.807471e-38
-193.58934 163.01552 548.01477 1.7982517e-38
-154.88757 129.85982 436.55414 1.7890321e-38
-152.96724 127.6955 429.27823 1.7614811e-38
-151.10986 125.60213 422.24088 1.7522615e-38
-151.76016 125.60213 422.24088 1.7430419e-38
-152.41045 125.60213 422.24088 1.7430419e-38
-155.61174 127.6955 429.27823 1.7338224e-38
-158.92157 129.85982 436.55414 1.7338224e-38
-174.37111 141.88388 476.9758 1.7613732e-38
-178.40958 144.56093 485.97534 1.7613732e-38
-179.15802 144.56093 485.97534 1.7705567e-38
-179.90646 144.56093 485.97534 1.7797763e-38
-191.4942 153.23459 515.13385 1.7797763e-38
-204.56123 163.01552 548.01477 1.7889959e-38
-209.87056 166.55934 559.9281 1.7981798e-38
-210.73289 166.55934 559.9281 1.8166189e-38
-211.59523 166.55934 559.9281 1.8258388e-38
-212.45758 166.55934 559.9281 1.8350584e-38
-213.31992 166.55934 559.9281 1.83513e-38
-214.18225 166.55934 559.9281 1.83513e-38
-210.46918 163.01552 548.01477 2.1576318e-38
-211.31317 163.01552 548.01477 1.7058766e-38
-216.76927 166.55934 559.9281 1.1340479e-38
-222.46786 170.26065 572.37097 1.2723413e-38
-223.34937 170.26065 572.37097 1.3370575e-38
-219.35629 166.55934 559.9281 1.70584e-38
-215.53313 163.01552 548.01477 1.9550196e-38
-216.37712 163.01552 548.01477 2.0011168e-38
-425.39136 319.23874 1073.1956 2.1027457e-38
-445.6113 333.11868 1119.8562 2.1856847e-38
-447.33597 333.11868 1119.8562 2.0750516e-38
-413.1358 306.46918 1030.2677 2.1672458e-38
-288.00174 212.82582 715.46368 2.038138e-38
-253.84708 186.87146 628.21204 2.1211128e-38
-237.44086 174.13022 585.37939 2.0471781e-38
-233.0459 170.26065 572.37097 2.1024946e-38
-701.78223 510.78198 1717.1129 2.0931676e-38
-704.4267 510.78198 1717.1129 2.1116064e-38
-707.07123 510.78198 1717.1129 2.1299735e-38
-462.85809 333.11868 1119.8562 2.1391929e-38
-445.22516 319.23874 1073.1956 2.1484482e-38
-446.87796 319.23874 1073.1956 2.1668871e-38
-538.23694 383.08649 1287.8347 2.1669588e-38
-720.29376 510.78198 1717.1129 2.1761783e-38
-722.93829 510.78198 1717.1129 2.1853259e-38
-725.58276 510.78198 1717.1129 2.1945454e-38
-728.22729 510.78198 1717.1129 2.2129125e-38
-548.15387 383.08649 1287.8347 2.2221319e-38
-523.94025 364.84427 1226.5092 2.2221678e-38
-525.82916 364.84427 1226.5092 2.2313872e-38
-503.7309 348.26044 1170.7588 2.2405349e-38
-483.55423 333.11868 1119.8562 2.2589737e-38
-429.28519 294.68192 990.64203 2.2773408e-38
-430.81088 294.68192 990.64203 2.2773408e-38
-562.03754 383.08649 1287.8347 2.2773408e-38
-752.02783 510.78198 1717.1129 2.2865602e-38
-754.67236 510.78198 1717.1129 2.2957438e-38
-757.31689 510.78198 1717.1129 2.2957438e-38
-569.97101 383.08649 1287.8347 2.2957438e-38
-519.95856 348.26044 1170.7588 2.2957438e-38
-478.28149 319.23874 1073.1956 2.2957438e-38
-523.5647 348.26044 1170.7588 2.2957438e-38
-1444.7614 957.71619 3219.5867 2.2957796e-38
-1449.7198 957.71619 3219.5867 2.2957796e-38
-290.93567 191.54324 643.91736 2.2957796e-38
-259.49097 170.26065 572.37097 2.2957796e-38
-260.37247 170.26065 572.37097 2.2958155e-38
-783.76196 510.78198 1717.1129 2.2958155e-38
-786.40643 510.78198 1717.1129 2.2958155e-38
-789.05096 510.78198 1717.1129 2.2958155e-38
-791.6955 510.78198 1717.1129 2.2958155e-38
-794.33997 510.78198 1717.1129 2.2958155e-38
-796.9845 510.78198 1717.1129 2.2958155e-38
-799.62903 510.78198 1717.1129 2.2958155e-38
784.43115 508.13745 1717.1129 2.3416974e-38
781.78662 508.13745 1717.1129 2.3416974e-38
779.14215 508.13745 1717.1129 2.3416974e-38
776.49762 508.13745 1717.1129 2.3416974e-38
773.85309 508.13745 1717.1129 2.3416974e-38
578.40643 381.10309 1287.8347 2.3416974e-38
576.4231 381.10309 1287.8347 2.3416974e-38
765.91962 508.13745 1717.1129 2.3416974e-38
763.27509 508.13745 1717.1129 2.3416974e-38
760.63055 508.13745 1717.1129 2.3416974e-38
757.98608 508.13745 1717.1129 2.3416974e-38
755.34155 508.13745 1717.1129 2.3416974e-38
752.69708 508.13745 1717.1129 2.3416974e-38
750.05255 508.13745 1717.1129 2.3416974e-38
747.40802 508.13745 1717.1129 2.3416974e-38
485.71536 331.39401 1119.8562 2.3416974e-38
483.99066 331.39401 1119.8562 2.3416974e-38
739.47449 508.13745 1717.1129 2.3416974e-38
736.83002 508.13745 1717.1129 2.3416974e-38
734.18549 508.13745 1717.1129 2.3416974e-38
731.54102 508.13745 1717.1129 2.3416974e-38
728.89648 508.13745 1717.1129 2.3416974e-38
726.25195 508.13745 1717.1129 2.3416974e-38
723.60748 508.13745 1717.1129 2.3416974e-38
720.96295 508.13745 1717.1129 2.3416974e-38
718.31848 508.13745 1717.1129 2.3416974e-38
715.67395 508.13745 1717.1129 2.3416974e-38
713.02942 508.13745 1717.1129 2.3416974e-38
710.38495 508.13745 1717.1129 2.3416974e-38
707.74042 508.13745 1717.1129 2.3416974e-38
705.09589 508.13745 1717.1129 2.3416974e-38
702.45142 508.13745 1717.1129 2.3416974e-38
699.80688 508.13745 1717.1129 2.3416974e-38
697.16241 508.13745 1717.1129 2.3416974e-38
1302.2211 952.75775 3219.5867 2.3416974e-38
1297.2626 952.75775 3219.5867 2.3416974e-38
1292.3041 952.75775 3219.5867 2.3416974e-38
1287.3457 952.75775 3219.5867 2.3416974e-38
1282.3872 952.75775 3219.5867 2.3416974e-38
1277.4288 952.75775 3219.5867 2.3416974e-38
1272.4703 952.75775 3219.5867 2.3416974e-38
1267.5118 952.75775 3219.5867 2.3416974e-38
1262.5535 952.75775 3219.5867 2.3416974e-38
1257.595 952.75775 3219.5867 2.3416974e-38
1252.6365 952.75775 3219.5867 2.3416974e-38
1247.6781 952.75775 3219.5867 2.3416974e-38
1242.7196 952.75775 3219.5867 2.3416974e-38
1237.7611 952.75775 3219.5867 2.3416974e-38
1232.8027 952.75775 3219.5867 2.3416974e-38
1227.8442 952.75775 3219.5867 2.3416974e-38
1222.8857 952.75775 3219.5867 2.3416974e-38
1217.9274 952.75775 3219.5867 2.3416974e-38
1212.9689 952.75775 3219.5867 2.3416974e-38
1208.0105 952.75775 3219.5867 2.3416974e-38
1203.052 952.75775 3219.5867 2.3416974e-38
1198.0935 952.75775 3219.5867 2.3416974e-38
1193.1351 952.75775 3219.5867 2.3416974e-38
1188.1766 952.75775 3219.5867 2.3416974e-38
1183.2181 952.75775 3219.5867 2.3416974e-38
1178.2598 952.75775 3219.5867 2.3416974e-38
1173.3013 952.75775 3219.5867 2.3416974e-38
1168.3428 952.75775 3219.5867 2.3416974e-38
1163.3844 952.75775 3219.5867 2.3416974e-38
1158.4259 952.75775 3219.5867 2.3416974e-38
36.187214 29.89044 101.00664 2.3416974e-38
36.031654 29.89044 101.00664 2.3416974e-38
35.876095 29.89044 101.00664 2.3416974e-38
35.720535 29.89044 101.00664 2.3416974e-38
35.56498 29.89044 101.00664 2.3416974e-38
35.40942 29.89044 101.00664 2.3416974e-38
35.25386 29.89044 101.00664 2.3416974e-38
35.098301 29.89044 101.00664 2.3416974e-38
34.942741 29.89044 101.00664 2.3416974e-38
34.787182 29.89044 101.00664 2.3416974e-38
35.183521 30.366781 102.61631 2.3416974e-38
34.476063 29.89044 101.00664 2.3416974e-38
34.320503 29.89044 101.00664 2.3416974e-38
34.164944 29.89044 101.00664 2.3416974e-38
34.009384 29.89044 101.00664 2.3416974e-38
33.853825 29.89044 101.00664 2.3416974e-38
33.698265 29.89044 101.00664 2.3416974e-38
33.542706 29.89044 101.00664 2.3416974e-38
33.387146 29.89044 101.00664 2.3416974e-38
33.23159 29.89044 101.00664 2.3416974e-38
33.076031 29.89044 101.00664 2.3416974e-38
32.920471 29.89044 101.00664 2.3416974e-38
33.28706 30.366781 102.61631 2.3416974e-38
32.609352 29.89044 101.00664 2.3416974e-38
32.453793 29.89044 101.00664 2.3416974e-38
32.298233 29.89044 101.00664 2.3416974e-38
32.142673 29.89044 101.00664 2.3416974e-38
31.987114 29.89044 101.00664 2.3416974e-38
31.831554 29.89044 101.00664 2.3416974e-38
31.675995 29.89044 101.00664 2.3416974e-38
31.520437 29.89044 101.00664 2.3416974e-38
31.364878 29.89044 101.00664 2.3416974e-38
31.209318 29.89044 101.00664 2.3416974e-38
31.053759 29.89044 101.00664 2.3416974e-38
30.898199 29.89044 101.00664 2.3416974e-38
30.74264 29.89044 101.00664 2.3416974e-38
30.58708 29.89044 101.00664 2.3416974e-38
30.431522 29.89044 101.00664 2.3416974e-38
30.275963 29.89044 101.00664 2.3416974e-38
30.120403 29.89044 101.00664 2.3416974e-38
29.964844 29.89044 101.00664 2.3416974e-38
29.809284 29.89044 101.00664 2.3416974e-38
29.653725 29.89044 101.00664 2.3416974e-38
29.498165 29.89044 101.00664 2.3416974e-38
29.342606 29.89044 101.00664 2.3416974e-38
29.187048 29.89044 101.00664 2.3416974e-38
29.031488 29.89044 101.00664 2.3416974e-38
28.875929 29.89044 101.00664 2.3416974e-38
28.720369 29.89044 101.00664 2.3416974e-38
28.56481 29.89044 101.00664 2.3416974e-38
28.40925 29.89044 101.00664 2.3416974e-38
28.253691 29.89044 101.00664 2.3416974e-38
28.098133 29.89044 101.00664 2.3416974e-38
27.942574 29.89044 101.00664 2.3416974e-38
27.787014 29.89044 101.00664 2.3416974e-38
27.631454 29.89044 101.00664 2.3416974e-38
28.365803 30.858551 104.27811 2.3416974e-38
870.83569 952.75775 3219.5867 2.3416974e-38
865.87726 952.75775 3219.5867 2.3416974e-38
27.88401 30.858551 104.27811 2.3416974e-38
27.281605 30.366781 102.61631 2.3416974e-38
26.698099 29.89044 101.00664 2.3416974e-38
26.54254 29.89044 101.00664 2.3416974e-38
26.38698 29.89044 101.00664 2.3416974e-38
26.231421 29.89044 101.00664 2.3416974e-38
26.075861 29.89044 101.00664 2.3416974e-38
25.920301 29.89044 101.00664 2.3416974e-38
25.764744 29.89044 101.00664 2.3416974e-38
25.609184 29.89044 101.00664 2.3416974e-38
25.453625 29.89044 101.00664 2.3416974e-38
25.298065 29.89044 101.00664 2.3416974e-38
25.142506 29.89044 101.00664 2.3416974e-38
24.986946 29.89044 101.00664 2.3416974e-38
24.831387 29.89044 101.00664 2.3416974e-38
24.675829 29.89044 101.00664 2.3416974e-38
24.520269 29.89044 101.00664 2.3416974e-38
24.36471 29.89044 101.00664 2.3416974e-38
24.20915 29.89044 101.00664 2.3416974e-38
24.053591 29.89044 101.00664 2.3416974e-38
23.898031 29.89044 101.00664 2.3416974e-38
23.742472 29.89044 101.00664 2.3416974e-38
23.586914 29.89044 101.00664 2.3416974e-38
23.431355 29.89044 101.00664 2.3416974e-38
23.275795 29.89044 101.00664 2.3416974e-38
23.120235 29.89044 101.00664 2.3416974e-38
22.964676 29.89044 101.00664 2.3416974e-38
22.809116 29.89044 101.00664 2.3416974e-38
22.653557 29.89044 101.00664 2.3416974e-38
22.497997 29.89044 101.00664 2.3416974e-38
22.34244 29.89044 101.00664 2.3416974e-38
22.18688 29.89044 101.00664 2.3416974e-38
22.031321 29.89044 101.00664 2.3416974e-38
21.875761 29.89044 101.00664 2.3416974e-38
21.720201 29.89044 101.00664 2.3416974e-38
21.564642 29.89044 101.00664 2.3416974e-38
21.409082 29.89044 101.00664 2.3416974e-38
21.253525 29.89044 101.00664 2.3416974e-38
21.097965 29.89044 101.00664 2.3416974e-38
20.942406 29.89044 101.00664 2.3416974e-38
20.786846 29.89044 101.00664 2.3416974e-38
20.631287 29.89044 101.00664 2.3416974e-38
20.475727 29.89044 101.00664 2.3416974e-38
20.320168 29.89044 101.00664 2.3416974e-38
20.16461 29.89044 101.00664 2.3416974e-38
20.00905 29.89044 101.00664 2.3416974e-38
19.853491 29.89044 101.00664 2.3416974e-38
19.697931 29.89044 101.00664 2.3416974e-38
19.542372 29.89044 101.00664 2.3416974e-38
19.386812 29.89044 101.00664 2.3416974e-38
19.231253 29.89044 101.00664 2.3416974e-38
19.075693 29.89044 101.00664 2.3416974e-38
603.07928 952.75775 3219.5867 2.3416974e-38
598.12085 952.75775 3219.5867 2.3416974e-38
593.16241 952.75775 3219.5867 2.3416974e-38
20.023964 32.434307 109.60295 2.3416974e-38
18.814371 30.734121 103.85764 2.3416974e-38
18.142338 29.89044 101.00664 2.3416974e-38
17.986778 29.89044 101.00664 2.3416974e-38
17.831221 29.89044 101.00664 2.3416974e-38
17.675661 29.89044 101.00664 2.3416974e-38
17.870502 30.488247 103.02677 2.3416974e-38
17.711832 30.488247 103.02677 2.3416974e-38
17.553162 30.488247 103.02677 2.3416974e-38
17.053423 29.89044 101.00664 2.3416974e-38
16.897863 29.89044 101.00664 2.3233662e-38
16.742306 29.89044 101.00664 2.3233662e-38
16.586746 29.89044 101.00664 2.3141826e-38
16.431187 29.89044 101.00664 2.3141826e-38
16.275627 29.89044 101.00664 2.3141826e-38
16.120068 29.89044 101.00664 2.3141826e-38
15.964508 29.89044 101.00664 2.3141826e-38
15.808949 29.89044 101.00664 2.3141826e-38
15.65339 29.89044 101.00664 2.3141826e-38
15.49783 29.89044 101.00664 2.3141826e-38
15.342272 29.89044 101.00664 2.3141826e-38
15.186712 29.89044 101.00664 2.3141826e-38
15.031153 29.89044 101.00664 2.2958514e-38
14.875593 29.89044 101.00664 2.2958514e-38
14.720035 29.89044 101.00664 2.2958514e-38
14.564475 29.89044 101.00664 2.2958514e-38
14.408916 29.89044 101.00664 2.2866678e-38
14.253356 29.89044 101.00664 2.2866678e-38
14.097797 29.89044 101.00664 2.2866678e-38
13.942238 29.89044 101.00664 2.2866678e-38
16.126619 34.963589 118.14997 2.2683366e-38
14.187491 31.110456 105.12936 2.2683366e-38
13.912015 30.858551 104.27811 2.2683366e-38
13.586401 30.488247 103.02677 2.2683366e-38
13.427731 30.488247 103.02677 2.2591531e-38
13.26906 30.488247 103.02677 2.2591531e-38
12.853323 29.89044 101.00664 2.2591531e-38
13.896694 32.712711 110.54375 2.2591531e-38
13.38185 31.891472 107.76859 2.240786e-38
13.215877 31.891472 107.76859 2.240786e-38
12.888127 31.496124 106.43262 2.240786e-38
12.671848 31.36651 105.99462 2.240786e-38
12.664965 31.758591 107.31956 2.2132353e-38
12.447818 31.626814 106.87424 2.2132353e-38
12.132198 31.237959 105.56022 2.2040518e-38
11.969626 31.237959 105.56022 2.2040518e-38
360.11514 952.75775 3219.5867 2.2040518e-38
355.15671 952.75775 3219.5867 2.2040518e-38
11.296718 30.734121 103.85764 2.2040518e-38
10.831052 29.89044 101.00664 2.2040518e-38
10.675493 29.89044 101.00664 2.2040518e-38
11.177429 31.758591 107.31956 2.2040518e-38
11.012148 31.758591 107.31956 2.1856847e-38
10.625502 31.110456 105.12936 2.1856847e-38
10.053256 29.89044 101.00664 2.1856847e-38
10.301684 31.110456 105.12936 2.1856847e-38
10.661996 32.712711 110.54375 2.1765011e-38
10.491749 32.712711 110.54375 2.1765011e-38
10.104663 32.025471 108.2214 2.158134e-38
9.5372667 30.734121 103.85764 2.158134e-38
9.3396568 30.610691 103.44054 2.158134e-38
8.9643412 29.89044 101.00664 2.158134e-38
8.8087816 29.89044 101.00664 2.158134e-38
8.6532221 29.89044 101.00664 2.158134e-38
8.6676159 30.488247 103.02677 2.158134e-38
8.5089455 30.488247 103.02677 2.158134e-38
8.1865444 29.89044 101.00664 2.158134e-38
8.0309849 29.89044 101.00664 2.158134e-38
8.0329342 30.488247 103.02677 2.1489505e-38
7.8428922 30.366781 102.61631 2.1489505e-38
7.5643072 29.89044 101.00664 2.1489505e-38
7.4087481 29.89044 101.00664 2.1489505e-38
7.4579158 30.734121 103.85764 2.1489505e-38
7.0976295 29.89044 101.00664 2.1489505e-38
6.94207 29.89044 101.00664 2.158134e-38
6.7865109 29.89044 101.00664 2.158134e-38
6.6309519 29.89044 101.00664 2.158134e-38
6.4753923 29.89044 101.00664 2.158134e-38
6.3198333 29.89044 101.00664 2.158134e-38
6.1642737 29.89044 101.00664 2.158134e-38
6.0087147 29.89044 101.00664 2.1489505e-38
5.8531551 29.89044 101.00664 2.1489505e-38
5.6975961 29.89044 101.00664 2.1489505e-38
5.5420365 29.89044 101.00664 2.1489505e-38
5.4723177 30.366781 102.61631 2.1489505e-38
5.2309179 29.89044 101.00664 2.1489505e-38
5.0753589 29.89044 101.00664 2.1489505e-38
4.9197998 29.89044 101.00664 2.1489505e-38
4.7642403 29.89044 101.00664 2.1489505e-38
4.7008548 30.488247 103.02677 2.1489505e-38
4.5421844 30.488247 103.02677 2.1489505e-38
4.2975626 29.89044 101.00664 2.1489505e-38
4.1420031 29.89044 101.00664 2.1305834e-38
3.986444 29.89044 101.00664 2.1305834e-38
3.8308847 29.89044 101.00664 2.1305834e-38
3.6753254 29.89044 101.00664 2.1305834e-38
3.5197661 29.89044 101.00664 2.1305834e-38
3.3642068 29.89044 101.00664 2.1305834e-38
3.2086475 29.89044 101.00664 2.1489505e-38
3.0530882 29.89044 101.00664 2.1489505e-38
18.945381 195.43748 660.42804 2.1489505e-38
17.928263 195.43748 660.42804 2.1489505e-38
3.0676031 35.45145 119.79858 2.1489505e-38
2.8697548 35.287323 119.24395 2.1489505e-38
72.524925 952.75775 3219.5867 2.1489505e-38
67.566475 952.75775 3219.5867 2.1489505e-38
62.608025 952.75775 3219.5867 2.158134e-38
11.825553 195.43748 660.42804 2.158134e-38
10.808434 195.43748 660.42804 2.1397669e-38
9.791316 195.43748 660.42804 2.1397669e-38
8.7741976 195.43748 660.42804 2.1397669e-38
7.7570796 195.43748 660.42804 2.1489505e-38
6.7399611 195.43748 660.42804 2.1489505e-38
5.7228427 195.43748 660.42804 2.1489505e-38
4.7057242 195.43748 660.42804 2.1489505e-38
3.688606 195.43748 660.42804 2.1489505e-38
2.6714878 195.43748 660.42804 2.158134e-38
1.6543694 195.43748 660.42804 2.158134e-38
0.63725096 195.43748 660.42804 2.158134e-38
-0.37986737 195.43748 660.42804 2.158134e-38
-1.3969858 195.43748 660.42804 2.158134e-38
-2.4141042 195.43748 660.42804 2.158134e-38
-3.4312224 195.43748 660.42804 2.158134e-38
-4.4483409 195.43748 660.42804 2.158134e-38
-5.4654593 195.43748 660.42804 2.158134e-38
-6.4825778 195.43748 660.42804 2.158134e-38
-7.3122034 190.55154 643.91736 2.158134e-38
-8.303894 190.55154 643.91736 2.158134e-38
-9.5339327 195.43748 660.42804 2.1765011e-38
-10.551051 195.43748 660.42804 2.1765011e-38
-11.56817 195.43748 660.42804 2.1765011e-38
-12.91648 200.58058 677.80774 2.1765011e-38
-13.960364 200.58058 677.80774 2.158134e-38
-15.004249 200.58058 677.80774 2.158134e-38
-16.481867 206.00168 696.12683 2.1489505e-38
-18.041574 211.72394 715.46368 2.1489505e-38
-20.269539 224.1783 757.5498 2.1489505e-38
-22.085815 230.97157 780.50586 2.1489505e-38
-23.287865 230.97157 780.50586 2.1765011e-38
-23.769623 224.1783 757.5498 2.1765011e-38
-23.550966 211.72394 715.46368 2.1765011e-38
-23.986551 206.00168 696.12683 2.1765011e-38
-24.39921 200.58058 677.80774 2.158134e-38
-25.443096 200.58058 677.80774 2.158134e-38
-26.48698 200.58058 677.80774 2.158134e-38
-28.274942 206.00168 696.12683 2.158134e-38
-29.34704 206.00168 696.12683 2.158134e-38
-30.419138 206.00168 696.12683 2.158134e-38
-31.491236 206.00168 696.12683 2.1765011e-38
-31.706404 200.58058 677.80774 2.1765011e-38
-32.750286 200.58058 677.80774 2.1765011e-38
-33.794174 200.58058 677.80774 2.1765011e-38
-35.779625 206.00168 696.12683 2.1765011e-38
-36.851723 206.00168 696.12683 2.1765011e-38
-37.92382 206.00168 696.12683 2.1765011e-38
-38.995918 206.00168 696.12683 2.1765011e-38
-40.068016 206.00168 696.12683 2.2316024e-38
-41.140114 206.00168 696.12683 2.2316024e-38
-42.212212 206.00168 696.12683 2.3141467e-38
-43.284309 206.00168 696.12683 2.3141467e-38
-43.189133 200.58058 677.80774 1.3639211e-38
-45.428505 206.00168 696.12683 4.4196477e-39
-46.500603 206.00168 696.12683 1.2895871e-38
-47.572701 206.00168 696.12683 1.2803675e-38
-48.644798 206.00168 696.12683 1.3079518e-38
-49.716896 206.00168 696.12683 1.2895127e-38
-50.788994 206.00168 696.12683 1.2528139e-38
-51.861092 206.00168 696.12683 6.4432278e-39
-52.933189 206.00168 696.12683 1.2905935e-38
-54.005287 206.00168 696.12683 2.3509513e-38
-53.627979 200.58058 677.80774 1.6509867e-38
-54.671864 200.58058 677.80774 1.6417672e-38
-55.715752 200.58058 677.80774 1.6142545e-38
-56.759636 200.58058 677.80774 1.6326936e-38
-57.80352 200.58058 677.80774 1.6235817e-38
-58.847404 200.58058 677.80774 1.6235817e-38
-59.891289 200.58058 677.80774 1.6328012e-38
-60.935173 200.58058 677.80774 1.6420208e-38
-63.654167 206.00168 696.12683 1.6420571e-38
-64.726265 206.00168 696.12683 1.6512767e-38
-64.066826 200.58058 677.80774 1.6604246e-38
-65.11071 200.58058 677.80774 1.6696442e-38
-66.154594 200.58058 677.80774 1.6788993e-38
-67.198479 200.58058 677.80774 1.6881189e-38
-68.242363 200.58058 677.80774 1.6789353e-38
-69.286247 200.58058 677.80774 1.6881549e-38
-68.526794 195.43748 660.42804 1.6973745e-38
-71.374016 200.58058 677.80774 1.706594e-38
-72.417908 200.58058 677.80774 1.7158139e-38
-73.461792 200.58058 677.80774 1.7158139e-38
-74.505676 200.58058 677.80774 1.7250337e-38
-75.549561 200.58058 677.80774 1.7434728e-38
-76.593445 200.58058 677.80774 1.7526205e-38
-79.735634 206.00168 696.12683 1.7618401e-38
-80.807732 206.00168 696.12683 1.7893912e-38
-79.725098 200.58058 677.80774 1.7893912e-38
-80.768982 200.58058 677.80774 1.8077584e-38
-81.812866 200.58058 677.80774 1.816978e-38
-82.85675 200.58058 677.80774 1.816978e-38
-83.900635 200.58058 677.80774 1.8261975e-38
-84.944519 200.58058 677.80774 1.8354171e-38
-85.988403 200.58058 677.80774 1.8446366e-38
-84.80069 195.43748 660.42804 1.8446366e-38
-85.81781 195.43748 660.42804 1.8538562e-38
-89.120056 200.58058 677.80774 1.8539281e-38
-90.16394 200.58058 677.80774 1.8631477e-38
-91.207825 200.58058 677.80774 1.8540004e-38
-89.886284 195.43748 660.42804 1.8540004e-38
-90.903404 195.43748 660.42804 1.8540723e-38
-94.339485 200.58058 677.80774 1.8632919e-38
-95.383369 200.58058 677.80774 1.8449248e-38
-96.427254 200.58058 677.80774 1.8541442e-38
-97.471138 200.58058 677.80774 1.8633636e-38
-98.515022 200.58058 677.80774 1.872583e-38
-99.558907 200.58058 677.80774 1.8909501e-38
-98.023232 195.43748 660.42804 1.9001695e-38
-99.040352 195.43748 660.42804 1.909389e-38
-100.05746 195.43748 660.42804 1.9186084e-38
-101.07458 195.43748 660.42804 1.9278278e-38
-102.09171 195.43748 660.42804 1.9370472e-38
-103.10883 195.43748 660.42804 1.9462308e-38
-104.12594 195.43748 660.42804 1.9462308e-38
-105.14306 195.43748 660.42804 1.9645979e-38
-106.16018 195.43748 660.42804 1.9738173e-38
-107.1773 195.43748 660.42804 1.9738173e-38
-108.19441 195.43748 660.42804 1.9922562e-38
-109.21153 195.43748 660.42804 1.9831085e-38
-110.22865 195.43748 660.42804 1.9831085e-38
-111.24577 195.43748 660.42804 2.0015115e-38
-112.26289 195.43748 660.42804 2.0015115e-38
-116.26106 200.58058 677.80774 2.0107309e-38
-117.30495 200.58058 677.80774 2.0199503e-38
-118.34883 200.58058 677.80774 2.0199503e-38
-116.33136 195.43748 660.42804 2.0291697e-38
-120.4366 200.58058 677.80774 2.0566486e-38
-124.76374 206.00168 696.12683 2.065868e-38
-125.83584 206.00168 696.12683 2.0750157e-38
-130.43315 211.72394 715.46368 2.0842351e-38
-131.53503 211.72394 715.46368 2.0934546e-38
-132.63692 211.72394 715.46368 2.102674e-38
-130.12422 206.00168 696.12683 2.1027457e-38
-134.84067 211.72394 715.46368 2.1119652e-38
-132.26842 206.00168 696.12683 2.1211128e-38
-133.34052 206.00168 696.12683 2.1303323e-38
-134.41261 206.00168 696.12683 2.1303681e-38
-139.24818 211.72394 715.46368 2.1395876e-38
-148.60594 224.1783 757.5498 2.1395876e-38
-159.13342 238.18944 804.89667 2.148807e-38
-165.54637 245.87297 830.86108 2.1671741e-38
-166.82597 245.87297 830.86108 2.1763935e-38
-162.85226 238.18944 804.89667 2.1856129e-38
-159.1194 230.97157 780.50586 2.1856129e-38
